47.40712271374351 2.231631 1.5626658
47.03975067521391 2.2235427 1.7002945
47.03975067521391 2.2235427 1.7002945
45.62926914860149 2.2507968 1.7350689
45.62926931307942 2.2507966 1.7350683
45.24160432654822 2.2598848 1.689727
45.2416044459813 2.259885 1.6897268
44.71366436384107 2.3622103 1.5014215
44.71366436384107 2.3622103 1.5014217
44.057514047047064 2.3095946 1.5659113
43.65335024491614 2.3438911 1.6944287
43.653350185223495 2.3438911 1.6944288
43.176115856824985 2.3033562 1.794663
43.176115856824985 2.3033564 1.7946627
42.39396622849467 2.3327453 1.7975063
42.39396622849467 2.3327453 1.7975059
41.72749206507219 2.3089013 1.6547751
41.72749195348653 2.3089013 1.6547745
40.82272321104536 2.330199 1.5112419
40.822723205694544 2.330199 1.5112422
40.39288953189103 2.5212505 1.4797962
40.392889548439165 2.5212505 1.479796
39.8591003354879 2.3978486 1.6777756
39.8591003354879 2.3978486 1.6777757
39.46164633642548 2.5028515 1.6064188
39.37487697637965 2.3671021 1.631264
39.46164641371267 2.5028512 1.6064191
39.37487705370477 2.3671021 1.6312642
38.802981417398485 2.5177026 1.5814841
38.70478186005224 2.3581998 1.7535
38.802981417398485 2.5177023 1.5814848
38.704781851414644 2.3581998 1.7535002
37.937421755699354 2.3852842 1.6479471
37.9374216960129 2.3852842 1.647947
37.31754901811472 2.5464673 1.4785146
37.317548958138985 2.5464675 1.4785144
36.883528349198556 2.6153724 1.448658
36.88352840882669 2.6153724 1.448658
36.25368240334074 2.611293 1.4539722
35.93070105909689 2.5615828 1.4440019
35.94783478532978 2.415516 1.480518
35.93070105909689 2.5615828 1.4440019
35.94783478532978 2.415516 1.4805179
34.84803855747635 2.583731 1.6223078
34.848038527528935 2.5837307 1.6223075
34.39344546880257 2.6272144 1.480767
34.39344547936064 2.6272144 1.4807669
33.79976915178144 2.6536984 1.5592976
33.799765337084175 2.6536984 1.5592972
33.329405086427066 2.60001 1.5314777
33.32940507187781 2.6000097 1.5314775
32.86201737535839 2.6731408 1.5565025
32.86201737535839 2.6731408 1.5565023
32.25633275903058 2.6948726 1.4538119
32.36915150268478 2.8052385 1.3732474
32.256332633320355 2.6948726 1.4538119
32.36915149657319 2.8052385 1.3732471
31.116584861327343 2.8596244 1.3820493
31.116584861327343 2.8596244 1.3820496
30.64124485723441 2.876002 1.4361393
30.64124479083189 2.876002 1.4361393
30.14968669962144 2.9082973 1.3772093
30.14755166027366 2.7621732 1.3906713
30.149686729426705 2.908297 1.3772092
30.14755166027366 2.7621732 1.390671
29.28246318756041 2.9005957 1.4455333
29.2824632336062 2.9005957 1.445534
28.899857474937114 2.976774 1.258503
28.899857407917057 2.976774 1.2585028
28.236864520327657 2.971912 1.2454922
27.973059579773203 2.967163 1.3134468
27.97305956324341 2.967163 1.313447
27.40957463663772 3.0118368 1.3565011
27.40957469631173 3.0118365 1.356501
26.783966909867093 2.9474382 1.3313388
26.783966880008798 2.9474382 1.3313389
26.42312166602173 2.9575453 1.3960245
26.423121785285332 2.9575453 1.3960245
25.859705222409126 3.0014625 1.3572716
25.859705282309683 3.0014622 1.3572714
25.359641884763146 2.991326 1.2141435
25.25240072802512 3.0944638 1.2239313
25.359642063727406 2.9913263 1.2141435
25.252400906946814 3.0944638 1.2239314
24.185261525054205 3.0679927 1.2634444
24.18526153041103 3.0679927 1.263444
23.548485247063546 3.0623274 1.2718223
23.5749349234773 3.1932857 1.2108009
23.548485247063546 3.0623274 1.2718222
23.5749349234773 3.1932857 1.2108011
22.893602576544478 3.0636623 1.2010512
22.89360446426616 3.0636623 1.2010508
22.092318796032284 3.2022672 1.0269682
21.97057981037775 3.024106 1.0762389
22.103419186706297 3.0551424 1.0629345
22.092318796032284 3.2022672 1.0269682
21.97057987001378 3.0241063 1.0762389
22.103419246350835 3.0551424 1.0629345
20.978488629029158 3.0377307 1.1903334
20.979129938135138 3.0393355 1.1772492
20.266329374620714 3.0490053 1.0472348
20.146744027938198 2.9850564 1.084337
20.266329374620714 3.0490053 1.047235
20.14674404727624 2.9850564 1.0843374
19.383953780292288 3.0027633 1.165633
19.381232249956447 2.9992182 1.1729233
18.732538892154345 2.9721928 1.1351016
18.73253913195208 2.9721928 1.1351023
18.06885391676429 2.8950384 1.0351623
18.019162267315792 2.7673643 0.97504985
18.06867289718474 2.8943377 1.0289376
18.019741632064314 2.7634397 0.96696854
16.98955279923365 2.842168 0.9341322
17.00315798356574 2.8661315 0.88263154
16.47900482655439 2.808973 1.0123746
16.47892364861245 2.80421 1.0215744
16.011609348183704 2.8409324 0.83003795
16.012651337161408 2.8399835 0.83088034
15.446152503551946 2.8048875 0.798571
15.448722500579164 2.8116312 0.78273225
15.02985858959649 2.8089902 0.91275704
14.927211775540856 2.7106206 0.9718365
15.028083783438653 2.8058376 0.91228676
14.93017874891406 2.7093756 0.9695826
14.125555471571442 2.6914744 0.98680836
14.010202748496493 2.779455 1.0121012
14.133700058979814 2.7105558 0.98240465
14.02989181087276 2.7983704 1.002445
13.221986332591639 2.7110863 0.9964124
13.228173173372307 2.7137988 0.8163284
12.858809963137915 2.6861477 1.0559874
12.869421119886555 2.704803 1.0018415
12.765381463656007 2.626779 0.9839795
12.035416129536115 2.7061365 1.031666
12.13982912685884 2.824191 0.90844136
12.020528053477125 2.705736 0.9661506
12.126029641240041 2.8316827 0.83390176
11.200020791608347 2.6923573 0.7832784
11.203472622067618 2.6803937 0.8648381
11.095256313159405 2.755991 0.8365334
10.388428434527214 2.6792378 0.81908107
10.382680857108026 2.6763644 0.7949094
9.87160060083202 2.6279407 0.70517063
9.774544268736637 2.722684 0.6522772
9.859143299900026 2.644555 0.7097857
9.220605511595247 2.628347 0.7877391
9.13551074605978 2.7261508 0.8796823
9.228050308560022 2.6377733 0.8146612
9.134738369248936 2.7336953 0.9134785
8.183588176930137 2.6668863 0.62647927
8.17279393313445 2.685005 0.6583091
7.575002633501296 2.6172736 0.6880765
7.501055271326049 2.719091 0.74377453
